ply
format ascii 1.0
element vertex 708
property float x
property float y
property float z
property uchar red
property uchar green
property uchar blue
end_header
-6.1339311599731445 -6.610921382904053 0.09801759570837021 255 125 0
-6.492514610290527 -6.344645023345947 0.13670624792575836 255 125 0
-6.598556995391846 -6.357206344604492 0.13105367124080658 255 125 0
-6.860098838806152 -6.259227275848389 0.14162017405033112 255 125 0
-6.964590549468994 -6.258155822753906 0.1389717012643814 255 125 0
-7.070315361022949 -6.261497974395752 0.1356421411037445 255 125 0
-7.1846747398376465 -6.264490604400635 0.13232141733169556 255 125 0
-7.307016849517822 -6.2683820724487305 0.1288476288318634 255 125 0
-7.45218563079834 -6.265263557434082 0.1262941062450409 255 125 0
-7.600011348724365 -6.2686285972595215 0.1227831318974495 255 125 0
-7.695512294769287 -6.305579662322998 0.11478734016418457 255 125 0
-7.654918193817139 -6.411326885223389 0.09781146794557571 255 125 0
-8.017746925354004 -6.333634853363037 0.10482826083898544 255 125 0
-8.152616500854492 -6.370149612426758 0.09692135453224182 255 125 0
-8.139310836791992 -6.469696044921875 0.08112157136201859 255 125 0
-8.661842346191406 -6.377478122711182 0.08900126069784164 255 125 0
-8.694660186767578 -6.472353935241699 0.07417813688516617 255 125 0
-8.805323600769043 -6.544152736663818 0.062237560749053955 255 125 0
-8.800701141357422 -6.6514692306518555 0.04654090479016304 255 125 0
-8.768692970275879 -6.76349401473999 0.03073829412460327 255 125 0
-8.906525611877441 -6.836508274078369 0.019300023093819618 255 125 0
-8.89356517791748 -7.15057897567749 -0.022758500650525093 255 125 0
-8.848665237426758 -8.058783531188965 -0.1269817054271698 255 125 0
-8.7139892578125 -8.241241455078125 -0.14389239251613617 255 125 0
-8.714238166809082 -8.340606689453125 -0.1530991494655609 255 125 0
-8.711783409118652 -8.440421104431152 -0.16199107468128204 255 125 0
-8.706674575805664 -8.540655136108398 -0.17063318192958832 255 125 0
-8.715229988098145 -8.645403861999512 -0.17943447828292847 255 125 0
-8.703536987304688 -8.746203422546387 -0.1873941421508789 255 125 0
-8.746198654174805 -8.86493968963623 -0.19683612883090973 255 125 0
-8.792668342590332 -8.989618301391602 -0.20677386224269867 255 125 0
-8.631403923034668 -9.040404319763184 -0.20832933485507965 255 125 0
-6.841915607452393 -8.416284561157227 -0.14158983528614044 255 125 0
-8.608261108398438 -9.25107192993164 -0.22213278710842133 255 125 0
-8.686456680297852 -9.401670455932617 -0.23280802369117737 255 125 0
-8.737506866455078 -9.546845436096191 -0.24196495115756989 255 125 0
-8.575955390930176 -9.583935737609863 -0.24108664691448212 255 125 0
-8.655279159545898 -9.751460075378418 -0.2518480718135834 255 125 0
-8.569462776184082 -9.957552909851074 -0.26045262813568115 255 125 0
-8.540102005004883 -10.20942211151123 -0.27155494689941406 255 125 0
-8.565959930419922 -10.372271537780762 -0.27886730432510376 255 125 0
-8.578886032104492 -10.532418251037598 -0.285846084356308 255 125 0
-8.56640625 -10.679243087768555 -0.29110562801361084 255 125 0
-8.555407524108887 -10.833263397216797 -0.2964751720428467 255 125 0
-8.685653686523438 -11.127060890197754 -0.3110819458961487 255 125 0
-6.21238374710083 -8.8572998046875 -0.14785006642341614 255 125 0
-6.195981025695801 -8.937725067138672 -0.14970718324184418 255 125 0
-6.19204044342041 -9.037298202514648 -0.1524801105260849 255 125 0
-6.192900657653809 -9.113450050354004 -0.15460093319416046 255 125 0
-6.113061428070068 -9.090117454528809 -0.15055988729000092 255 125 0
-6.115471363067627 -9.173237800598145 -0.15260694921016693 255 125 0
-6.242645263671875 -9.443138122558594 -0.1648848056793213 255 125 0
-6.232809543609619 -9.531623840332031 -0.16644366085529327 255 125 0
-6.218478202819824 -9.620002746582031 -0.16768595576286316 255 125 0
-6.175500869750977 -9.665677070617676 -0.16643784940242767 255 125 0
-6.19944429397583 -9.835693359375 -0.17127938568592072 255 125 0
-7.536083698272705 -12.582454681396484 -0.29573309421539307 255 125 0
-7.338818550109863 -12.502405166625977 -0.2822185754776001 255 125 0
-7.1797027587890625 -12.494063377380371 -0.27112239599227905 255 125 0
-7.026412487030029 -12.48670768737793 -0.26221880316734314 255 125 0
-6.89961051940918 -12.537910461425781 -0.2557535767555237 255 125 0
-6.7551069259643555 -12.53867244720459 -0.24540741741657257 255 125 0
-6.6090826988220215 -12.526591300964355 -0.23619477450847626 255 125 0
-6.469351291656494 -12.526659965515137 -0.22725726664066315 255 125 0
-6.3326005935668945 -12.530506134033203 -0.21844391524791718 255 125 0
-6.180652141571045 -12.465408325195312 -0.20702984929084778 255 125 0
-6.047576427459717 -12.461238861083984 -0.1982407122850418 255 125 0
-5.915545463562012 -12.454319953918457 -0.18946856260299683 255 125 0
-5.787313461303711 -12.459734916687012 -0.1811656504869461 255 125 0
-5.6670098304748535 -12.520029067993164 -0.1732061207294464 255 125 0
-5.537297248840332 -12.518533706665039 -0.1643792986869812 255 125 0
-5.403471946716309 -12.446971893310547 -0.15430499613285065 255 125 0
-5.277283191680908 -12.438567161560059 -0.14550751447677612 255 125 0
-5.1519975662231445 -12.435924530029297 -0.13690032064914703 255 125 0
-5.024991035461426 -11.671195983886719 -0.11776912212371826 255 125 0
-4.920051574707031 -11.679269790649414 -0.110654816031456 255 125 0
-5.064857006072998 -6.916254997253418 -0.20412063598632812 255 125 0
-5.135043621063232 -6.9192986488342285 -0.20879492163658142 255 125 0
-5.195779323577881 -6.924957752227783 -0.2122117131948471 255 125 0
-5.308680057525635 -6.587350845336914 -0.28176915645599365 255 125 0
-5.360322952270508 -6.572754859924316 -0.2882400453090668 255 125 0
-5.407936096191406 -6.575948238372803 -0.291080504655838 255 125 0
-5.45918607711792 -6.573112487792969 -0.29511818289756775 255 125 0
-5.5461859703063965 -6.574484348297119 -0.30061620473861694 255 125 0
-5.658693313598633 -6.57451057434082 -0.30769404768943787 255 125 0
-5.7557692527771 -6.5815653800964355 -0.31214484572410583 255 125 0
-5.820976734161377 -6.581335067749023 -0.3158848285675049 255 125 0
-5.860106468200684 -6.589591026306152 -0.31643471121788025 255 125 0
-5.91505241394043 -6.580230712890625 -0.3211582899093628 255 125 0
-5.954897880554199 -6.591450214385986 -0.3210368752479553 255 125 0
-6.031387805938721 -6.5935139656066895 -0.32444873452186584 255 125 0
-6.132724285125732 -6.605045318603516 -0.3268943130970001 255 125 0
-6.248643398284912 -6.612627983093262 -0.3303205370903015 255 125 0
-6.348769664764404 -6.614713191986084 -0.33391255140304565 255 125 0
-6.417027950286865 -6.61920690536499 -0.33560845255851746 255 125 0
-6.5403618812561035 -6.6182756423950195 -0.34025976061820984 255 125 0
-6.673218727111816 -6.619688510894775 -0.34452781081199646 255 125 0
-6.780126094818115 -6.615684509277344 -0.3489571213722229 255 125 0
-7.003902435302734 -6.61854887008667 -0.35514968633651733 255 125 0
-7.129454135894775 -6.621537208557129 -0.3582223355770111 255 125 0
-7.263454914093018 -6.627249717712402 -0.36110010743141174 255 125 0
-7.383090019226074 -6.645683765411377 -0.3603491187095642 255 125 0
-7.526302814483643 -6.659922122955322 -0.36059170961380005 255 125 0
-7.710432529449463 -6.66600227355957 -0.36354708671569824 255 125 0
-7.926827430725098 -6.6697998046875 -0.3677050471305847 255 125 0
-8.240975379943848 -6.654508590698242 -0.3782181739807129 255 125 0
-8.574254035949707 -6.650401592254639 -0.3863860070705414 255 125 0
-8.819643020629883 -6.6847920417785645 -0.3825606405735016 255 125 0
-8.880622863769531 -6.97891092300415 -0.3092886805534363 255 125 0
-8.87635326385498 -7.377686500549316 -0.20369528234004974 255 125 0
-8.726886749267578 -8.523831367492676 0.13304775953292847 255 125 0
-8.718689918518066 -8.820977210998535 0.22761428356170654 255 125 0
-8.61453628540039 -8.888110160827637 0.25151798129081726 255 125 0
-8.603690147399902 -8.98563003540039 0.28356221318244934 255 125 0
-8.667611122131348 -9.113794326782227 0.3245457708835602 255 125 0
-8.781733512878418 -9.269452095031738 0.3737848997116089 255 125 0
-8.805227279663086 -9.393697738647461 0.41510841250419617 255 125 0
-7.0313544273376465 -8.709209442138672 0.23282669484615326 255 125 0
-6.834020137786865 -8.665624618530273 0.22403359413146973 255 125 0
-6.784841060638428 -8.69735336303711 0.23693981766700745 255 125 0
-8.489561080932617 -10.065680503845215 0.6594505310058594 255 125 0
-8.730934143066406 -10.37503719329834 0.7610455751419067 255 125 0
-8.648538589477539 -10.45931625366211 0.7948436737060547 255 125 0
-8.615632057189941 -10.583455085754395 0.841666579246521 255 125 0
-8.610651016235352 -10.733600616455078 0.8970924019813538 255 125 0
-8.611268043518066 -10.896820068359375 0.9569848775863647 255 125 0
-8.742378234863281 -11.192620277404785 1.0597848892211914 255 125 0
-8.743083953857422 -11.380012512207031 1.1285626888275146 255 125 0
-8.729964256286621 -11.5629243850708 1.1973570585250854 255 125 0
-8.725988388061523 -11.766242027282715 1.2737127542495728 255 125 0
-8.729117393493652 -11.990979194641113 1.3579013347625732 255 125 0
-8.711454391479492 -12.204606056213379 1.4395633935928345 255 125 0
-8.594209671020508 -12.30507755279541 1.4836928844451904 255 125 0
-8.455086708068848 -12.37524127960205 1.5195229053497314 255 125 0
-8.25954818725586 -12.361811637878418 1.5257632732391357 255 125 0
-8.177558898925781 -12.51197338104248 1.58827805519104 255 125 0
-8.017451286315918 -12.542718887329102 1.6109281778335571 255 125 0
-7.833160400390625 -12.527788162231445 1.617496371269226 255 125 0
-7.697681903839111 -12.591390609741211 1.652809977531433 255 125 0
-7.4911675453186035 -12.516000747680664 1.6380831003189087 255 125 0
-7.328855991363525 -12.513792037963867 1.6491475105285645 255 125 0
-7.1705451011657715 -12.514102935791016 1.661026120185852 255 125 0
-7.032268047332764 -12.554703712463379 1.6868318319320679 255 125 0
-6.875833511352539 -12.54672622680664 1.6951990127563477 255 125 0
-6.7245192527771 -12.54116153717041 1.7048544883728027 255 125 0
-6.57151460647583 -12.52455997467041 1.7103191614151 255 125 0
-6.422542095184326 -12.51204776763916 1.7170376777648926 255 125 0
-6.266802787780762 -12.463744163513184 1.7104177474975586 255 125 0
-6.127098083496094 -12.46609115600586 1.722429633140564 255 125 0
-5.986352443695068 -12.456709861755371 1.730036735534668 255 125 0
-5.847996234893799 -12.4519681930542 1.7394803762435913 255 125 0
-5.707151889801025 -12.420584678649902 1.7389228343963623 255 125 0
-5.569980621337891 -12.400528907775879 1.7422688007354736 255 125 0
-5.435163497924805 -12.385445594787598 1.7476047277450562 255 125 0
-5.301833152770996 -12.367209434509277 1.751692295074463 255 125 0
-5.12373161315918 -10.948097229003906 1.211067795753479 255 125 0
-5.031587600708008 -10.971046447753906 1.2280124425888062 255 125 0
-4.938368320465088 -10.951436042785645 1.2285456657409668 255 125 0
-5.061430931091309 -6.917510509490967 -0.5429657697677612 255 125 0
-5.143685340881348 -6.91778039932251 -0.5507290959358215 255 125 0
-5.286715984344482 -6.587860584259033 -0.7744073271751404 255 125 0
-5.344090461730957 -6.576095104217529 -0.787377119064331 255 125 0
-5.398397445678711 -6.57982873916626 -0.7900583148002625 255 125 0
-5.435035228729248 -6.582888126373291 -0.7914407253265381 255 125 0
-5.477102756500244 -6.574334621429443 -0.8007179498672485 255 125 0
-5.555708885192871 -6.57780122756958 -0.8054758906364441 255 125 0
-5.659313678741455 -6.580872058868408 -0.8124881386756897 255 125 0
-5.7515106201171875 -6.5771026611328125 -0.8226456642150879 255 125 0
-5.843973636627197 -6.581677436828613 -0.8272111415863037 255 125 0
-5.943333625793457 -6.585317134857178 -0.8325964212417603 255 125 0
-6.022168159484863 -6.588550567626953 -0.8363637328147888 255 125 0
-6.07260274887085 -6.595693111419678 -0.8353404402732849 255 125 0
-6.158824920654297 -6.600168228149414 -0.8383763432502747 255 125 0
-6.264073848724365 -6.592835903167725 -0.8502116799354553 255 125 0
-6.327837944030762 -6.597474575042725 -0.8512312173843384 255 125 0
-6.434315204620361 -6.6013360023498535 -0.8551605939865112 255 125 0
-6.548518657684326 -6.605685234069824 -0.8589621186256409 255 125 0
-6.62819766998291 -6.610398292541504 -0.8601449131965637 255 125 0
-6.728437423706055 -6.605788230895996 -0.8688600063323975 255 125 0
-6.831012725830078 -6.6042160987854 -0.8753775954246521 255 125 0
-6.940718650817871 -6.603204727172852 -0.8817551732063293 255 125 0
-7.024277210235596 -6.620413303375244 -0.8741855621337891 255 125 0
-7.143838405609131 -6.623021125793457 -0.8781965374946594 255 125 0
-7.279436111450195 -6.623338222503662 -0.88433438539505 255 125 0
-7.438510894775391 -6.619436740875244 -0.8943623304367065 255 125 0
-7.577567100524902 -6.630496501922607 -0.8925653696060181 255 125 0
-7.911934852600098 -6.649109840393066 -0.8933164477348328 255 125 0
-8.069478034973145 -6.671449661254883 -0.8836013674736023 255 125 0
-8.614947319030762 -6.671502590179443 -0.9038388729095459 255 125 0
-8.815635681152344 -6.707214832305908 -0.8860735893249512 255 125 0
-8.871001243591309 -6.783177375793457 -0.8330798745155334 255 125 0
-8.864819526672363 -6.916109085083008 -0.7360461950302124 255 125 0
-8.868049621582031 -7.376340866088867 -0.3937285840511322 255 125 0
-8.85498046875 -8.172536849975586 0.23072946071624756 255 125 0
-8.736848831176758 -8.31266975402832 0.34853866696357727 255 125 0
-8.740071296691895 -8.716764450073242 0.6849576830863953 255 125 0
-8.728382110595703 -8.79721736907959 0.7535272836685181 255 125 0
-8.66733169555664 -8.862338066101074 0.8116570115089417 255 125 0
-8.75803279876709 -8.979813575744629 0.9087494015693665 255 125 0
-8.645414352416992 -9.026901245117188 0.9535358548164368 255 125 0
-8.614890098571777 -9.10324764251709 1.0211527347564697 255 125 0
-8.559284210205078 -9.169344902038574 1.0821740627288818 255 125 0
-8.757397651672363 -9.448760986328125 1.3175443410873413 255 125 0
-9.385092735290527 -9.867879867553711 1.6539723873138428 255 125 0
-9.088081359863281 -9.831868171691895 1.6379307508468628 255 125 0
-8.890974044799805 -9.839090347290039 1.6559278964996338 255 125 0
-8.716612815856934 -9.852273941040039 1.6781537532806396 255 125 0
-8.54997730255127 -9.863852500915527 1.6988587379455566 255 125 0
-8.359308242797852 -9.852873802185059 1.7013616561889648 255 125 0
-8.184608459472656 -9.845648765563965 1.7056573629379272 255 125 0
-8.023818016052246 -9.841025352478027 1.7130696773529053 255 125 0
-7.865212917327881 -9.831779479980469 1.7161197662353516 255 125 0
-7.75570011138916 -9.855091094970703 1.7451443672180176 255 125 0
-7.601637363433838 -9.838007926940918 1.7405078411102295 255 125 0
-7.449573040008545 -9.815730094909668 1.7315534353256226 255 125 0
-7.322093963623047 -9.80917739868164 1.7356623411178589 255 125 0
-7.206256866455078 -9.808746337890625 1.7447901964187622 255 125 0
-7.10723876953125 -9.821634292602539 1.7641246318817139 255 125 0
-6.989041328430176 -9.81037712097168 1.7638182640075684 255 125 0
-6.877688407897949 -9.80173110961914 1.7655199766159058 255 125 0
-6.768011093139648 -9.79019546508789 1.7646600008010864 255 125 0
-6.664152145385742 -9.781078338623047 1.7658138275146484 255 125 0
-6.565694808959961 -9.774685859680176 1.769159197807312 255 125 0
-6.47266960144043 -9.771973609924316 1.7755062580108643 255 125 0
-6.38057804107666 -9.767117500305176 1.7797845602035522 255 125 0
-6.285808563232422 -9.753928184509277 1.77682626247406 255 125 0
-6.1961164474487305 -9.744755744934082 1.7772629261016846 255 125 0
-6.1108856201171875 -9.739848136901855 1.7812676429748535 255 125 0
-5.984364986419678 -9.727628707885742 1.7831318378448486 255 125 0
-5.872354507446289 -9.742408752441406 1.8089847564697266 255 125 0
-5.789768218994141 -9.729662895202637 1.8059937953948975 255 125 0
-5.673130035400391 -9.722616195678711 1.812253713607788 255 125 0
-5.5495991706848145 -9.681975364685059 1.7879124879837036 255 125 0
-5.476399898529053 -9.68148136138916 1.7958637475967407 255 125 0
-5.4020538330078125 -9.673020362854004 1.7963945865631104 255 125 0
-5.329200267791748 -9.668972969055176 1.8008533716201782 255 125 0
-5.2545952796936035 -9.645951271057129 1.7878777980804443 255 125 0
-5.111071586608887 -9.075194358825684 1.2632086277008057 255 125 0
-5.034839153289795 -9.065875053405762 1.26324462890625 255 125 0
-5.059349060058594 -6.951330661773682 -1.0724656581878662 255 125 0
-5.107307434082031 -6.956277847290039 -1.0728036165237427 255 125 0
-5.156003952026367 -6.957849502563477 -1.0778576135635376 255 125 0
-5.204297065734863 -6.964827060699463 -1.0752359628677368 255 125 0
-5.254469871520996 -6.9656548500061035 -1.081275463104248 255 125 0
-5.338745594024658 -6.971941947937012 -1.0845335721969604 255 125 0
-5.445777893066406 -6.975826263427734 -1.094256043434143 255 125 0
-5.515748023986816 -6.985363960266113 -1.0904638767242432 255 125 0
-5.557862281799316 -6.982015609741211 -1.1008104085922241 255 125 0
-5.634119033813477 -6.989938259124756 -1.0995186567306519 255 125 0
-5.73707389831543 -6.996837615966797 -1.1028162240982056 255 125 0
-5.825530529022217 -7.002418041229248 -1.105722188949585 255 125 0
-5.918768405914307 -7.009222030639648 -1.1069058179855347 255 125 0
-6.018656253814697 -7.016541957855225 -1.1074581146240234 255 125 0
-6.126461029052734 -7.024252414703369 -1.1078306436538696 255 125 0
-6.24222469329834 -7.03344202041626 -1.1060847043991089 255 125 0
-6.335880279541016 -7.040770053863525 -1.1044607162475586 255 125 0
-7.0287346839904785 -7.0805134773254395 -1.104217529296875 255 125 0
-7.289071559906006 -7.090362548828125 -1.1085630655288696 255 125 0
-8.751749038696289 -7.265012741088867 -0.9241665601730347 255 125 0
-8.86292552947998 -7.47014045715332 -0.5920017957687378 255 125 0
-8.861401557922363 -7.574276924133301 -0.41652587056159973 255 125 0
-8.857379913330078 -7.974991321563721 0.28403669595718384 255 125 0
-8.859443664550781 -8.124044418334961 0.5556278228759766 255 125 0
-8.71630859375 -8.203498840332031 0.7114046812057495 255 125 0
-8.750102996826172 -8.357866287231445 1.0006481409072876 255 125 0
-8.754782676696777 -8.409760475158691 1.0999377965927124 255 125 0
-8.748734474182129 -8.460227966308594 1.1977835893630981 255 125 0
-8.754104614257812 -8.514022827148438 1.3018362522125244 255 125 0
-8.748677253723145 -8.56627082824707 1.4043304920196533 255 125 0
-8.740942001342773 -8.618572235107422 1.5078800916671753 255 125 0
-8.743717193603516 -8.67471694946289 1.618830919265747 255 125 0
-8.72763729095459 -8.726836204528809 1.7241096496582031 255 125 0
-8.490830421447754 -8.712788581848145 1.7181915044784546 255 125 0
-8.293608665466309 -8.705394744873047 1.7224746942520142 255 125 0
-8.119651794433594 -8.700910568237305 1.7308070659637451 255 125 0
-7.954240798950195 -8.695252418518066 1.7365775108337402 255 125 0
-7.810965061187744 -8.693767547607422 1.7486954927444458 255 125 0
-7.663707256317139 -8.687217712402344 1.751890778541565 255 125 0
-7.517649173736572 -8.677543640136719 1.7488996982574463 255 125 0
-7.398613452911377 -8.675695419311523 1.7594280242919922 255 125 0
-7.275742530822754 -8.66936206817627 1.7615753412246704 255 125 0
-7.178247451782227 -8.671842575073242 1.7795270681381226 255 125 0
-7.063966751098633 -8.664010047912598 1.7784637212753296 255 125 0
-6.956845283508301 -8.657054901123047 1.7784181833267212 255 125 0
-6.851309299468994 -8.648234367370605 1.7746950387954712 255 125 0
-6.7152252197265625 -8.642451286315918 1.7825838327407837 255 125 0
-6.5862345695495605 -8.636821746826172 1.7901972532272339 255 125 0
-6.506659030914307 -8.634551048278809 1.7979315519332886 255 125 0
-6.43231201171875 -8.634147644042969 1.8090826272964478 255 125 0
-6.320199966430664 -8.630152702331543 1.81917405128479 255 125 0
-6.208978176116943 -8.623577117919922 1.8240965604782104 255 125 0
-6.105872631072998 -8.619597434997559 1.8338993787765503 255 125 0
-6.003901958465576 -8.613861083984375 1.840063452720642 255 125 0
-5.895360469818115 -8.597092628479004 1.8236368894577026 255 125 0
-5.798893451690674 -8.589228630065918 1.8247853517532349 255 125 0
-5.735169887542725 -8.582484245300293 1.8224306106567383 255 125 0
-5.67756462097168 -8.582468032836914 1.8338141441345215 255 125 0
-5.617487907409668 -8.577978134155273 1.836011528968811 255 125 0
-5.5283050537109375 -8.56982135772705 1.8362855911254883 255 125 0
-5.4120049476623535 -8.5587797164917 1.8360300064086914 255 125 0
-5.326071739196777 -8.548965454101562 1.8324495553970337 255 125 0
-5.199016571044922 -8.290388107299805 1.287968635559082 255 125 0
-5.120270729064941 -8.28445053100586 1.2916173934936523 255 125 0
-5.041805267333984 -8.278486251831055 1.294724941253662 255 125 0
-5.049947738647461 -7.422614574432373 -1.0869088172912598 255 125 0
-5.132083892822266 -7.43019437789917 -1.0869368314743042 255 125 0
-5.229415416717529 -7.438928127288818 -1.086983561515808 255 125 0
-5.3313493728637695 -7.446706771850586 -1.0916520357131958 255 125 0
-5.4413862228393555 -7.4538164138793945 -1.1009249687194824 255 125 0
-5.542149066925049 -7.460615634918213 -1.10646390914917 255 125 0
-5.632285118103027 -7.466490745544434 -1.1109482049942017 255 125 0
-5.7282023429870605 -7.473200798034668 -1.111830711364746 255 125 0
-5.833776950836182 -7.479742050170898 -1.1152153015136719 255 125 0
-5.920814514160156 -7.486391544342041 -1.1109130382537842 255 125 0
-6.026463985443115 -7.491311073303223 -1.1181925535202026 255 125 0
-7.142587661743164 -7.545166015625 -1.117808222770691 255 125 0
-7.495519161224365 -7.5550408363342285 -1.1377192735671997 255 125 0
-7.903152942657471 -7.569108009338379 -1.1413077116012573 255 125 0
-8.144855499267578 -7.577473163604736 -1.140331745147705 255 125 0
-8.429266929626465 -7.586950302124023 -1.1406846046447754 255 125 0
-8.740215301513672 -7.632193565368652 -0.9290724396705627 255 125 0
-8.845685005187988 -7.664340972900391 -0.7476346492767334 255 125 0
-8.85388469696045 -7.680120944976807 -0.6474085450172424 255 125 0
-8.859068870544434 -7.841795444488525 0.5566078424453735 255 125 0
-8.868114471435547 -7.88779878616333 0.9787573218345642 255 125 0
-8.86290168762207 -7.898359775543213 1.085712194442749 255 125 0
-8.878287315368652 -7.910143852233887 1.2011114358901978 255 125 0
-8.86770248413086 -7.920116901397705 1.3100404739379883 255 125 0
-8.876312255859375 -7.931275844573975 1.428016185760498 255 125 0
-8.819565773010254 -7.938144683837891 1.5219923257827759 255 125 0
-8.775888442993164 -7.945096015930176 1.6208622455596924 255 125 0
-8.753026962280273 -7.953484058380127 1.729596734046936 255 125 0
-8.502158164978027 -7.942897796630859 1.7220580577850342 255 125 0
-8.30674934387207 -7.935441970825195 1.7318750619888306 255 125 0
-8.120344161987305 -7.927772521972656 1.7366106510162354 255 125 0
-7.950376987457275 -7.920802116394043 1.7420320510864258 255 125 0
-7.803250312805176 -7.914933681488037 1.7534772157669067 255 125 0
-7.637073040008545 -7.906623840332031 1.7444888353347778 255 125 0
-7.513649940490723 -7.901498317718506 1.757396936416626 255 125 0
-7.391403675079346 -7.89592981338501 1.7652201652526855 255 125 0
-7.277475357055664 -7.890605926513672 1.7736085653305054 255 125 0
-7.158777236938477 -7.884235858917236 1.7721456289291382 255 125 0
-7.066039085388184 -7.87992525100708 1.7879074811935425 255 125 0
-6.955336570739746 -7.873414993286133 1.7822011709213257 255 125 0
-6.859005928039551 -7.868016242980957 1.7848081588745117 255 125 0
-6.728052616119385 -7.860690593719482 1.7935627698898315 255 125 0
-6.604300498962402 -7.853365898132324 1.8017629384994507 255 125 0
-6.53339958190918 -7.849607467651367 1.8161931037902832 255 125 0
-6.458158493041992 -7.845085144042969 1.8218104839324951 255 125 0
-6.3888325691223145 -7.840703010559082 1.831976056098938 255 125 0
-6.319455623626709 -7.836337566375732 1.8391880989074707 255 125 0
-6.216925621032715 -7.82927131652832 1.8456661701202393 255 125 0
-6.119412899017334 -7.822461128234863 1.8547204732894897 255 125 0
-6.020012855529785 -7.814849853515625 1.8518348932266235 255 125 0
-5.929078578948975 -7.808192729949951 1.8591586351394653 255 125 0
-5.838001728057861 -7.801049709320068 1.8587219715118408 255 125 0
-5.719952583312988 -7.79144811630249 1.855478048324585 255 125 0
-5.636112689971924 -7.784674644470215 1.8580198287963867 255 125 0
-5.553168296813965 -7.777675151824951 1.8561009168624878 255 125 0
-5.4461822509765625 -7.768640518188477 1.857132077217102 255 125 0
-5.365591049194336 -7.761353969573975 1.8476147651672363 255 125 0
-5.213375568389893 -7.727264881134033 1.301529884338379 255 125 0
-5.122324466705322 -7.719157695770264 1.2993193864822388 255 125 0
-5.0502800941467285 -7.712876319885254 1.297729253768921 255 125 0
-8.741052627563477 -8.599035263061523 0.5667960047721863 255 125 0
-5.0466437339782715 -7.830914497375488 -1.0866756439208984 255 125 0
-5.128036022186279 -7.838387966156006 -1.0887612104415894 255 125 0
-5.2248215675354 -7.846943378448486 -1.0900685787200928 255 125 0
-5.326470375061035 -7.856016635894775 -1.0939706563949585 255 125 0
-5.437170028686523 -7.866672992706299 -1.1038577556610107 255 125 0
-5.522731304168701 -7.874670028686523 -1.1115788221359253 255 125 0
-5.611059188842773 -7.881309986114502 -1.1120846271514893 255 125 0
-7.37227201461792 -7.973058700561523 -1.1342663764953613 255 125 0
-8.704392433166504 -8.006302833557129 -1.089738130569458 255 125 0
-8.714495658874512 -7.983433723449707 -0.9914585947990417 255 125 0
-8.795880317687988 -7.966432571411133 -0.9096216559410095 255 125 0
-8.850815773010254 -7.8717546463012695 -0.5197495818138123 255 125 0
-8.87529468536377 -7.636539459228516 0.35780787467956543 255 125 0
-8.867827415466309 -7.521012306213379 0.7540695071220398 255 125 0
-8.876700401306152 -7.4902143478393555 0.8578632473945618 255 125 0
-8.72911548614502 -8.605368614196777 0.14770567417144775 255 125 0
-8.730446815490723 -8.706357955932617 0.17481067776679993 255 125 0
-8.734434127807617 -8.215317726135254 0.04301850497722626 255 125 0
-8.737214088439941 -8.409330368041992 0.09507431089878082 255 125 0
-8.739151954650879 -8.312420845031738 0.06904727220535278 255 125 0
-8.86609172821045 -7.257928371429443 -0.21507014334201813 255 125 0
-8.875639915466309 -6.753900527954102 -0.35048022866249084 255 125 0
-8.87434196472168 -6.856834888458252 -0.32281190156936646 255 125 0
-8.870388984680176 -7.158851146697998 -0.24174760282039642 255 125 0
-6.877735137939453 -6.620411396026611 -0.36901092529296875 255 125 0
-8.887052536010742 -7.426152229309082 1.068415880203247 255 125 0
-8.87920093536377 -7.393864154815674 1.171949863433838 255 125 0
-8.89175796508789 -7.3592634201049805 1.2840698957443237 255 125 0
-8.878583908081055 -7.325717449188232 1.388853669166565 255 125 0
-8.884309768676758 -7.2895402908325195 1.5029133558273315 255 125 0
-8.80246353149414 -7.261481285095215 1.5814496278762817 255 125 0
-8.809882164001465 -7.223494529724121 1.6994211673736572 255 125 0
-8.588377952575684 -7.213009834289551 1.7066317796707153 255 125 0
-8.391936302185059 -7.202200412750244 1.7158730030059814 255 125 0
-8.211247444152832 -7.192080974578857 1.7243247032165527 255 125 0
-8.047562599182129 -7.181919097900391 1.7343841791152954 255 125 0
-7.913212299346924 -7.169125080108643 1.7546721696853638 255 125 0
-7.772369861602783 -7.1591796875 1.764387607574463 255 125 0
-7.599903106689453 -7.157627105712891 1.745086669921875 255 125 0
-7.4762492179870605 -7.149009704589844 1.7526127099990845 255 125 0
-7.360792636871338 -7.140321731567383 1.7608251571655273 255 125 0
-7.2465314865112305 -7.133054256439209 1.7644845247268677 255 125 0
-7.139540195465088 -7.125717639923096 1.7688767910003662 255 125 0
-7.0518646240234375 -7.114773273468018 1.7856656312942505 255 125 0
-6.953293323516846 -7.107908248901367 1.7884305715560913 255 125 0
-6.866907596588135 -7.099123001098633 1.7989091873168945 255 125 0
-6.781876564025879 -7.090991497039795 1.8069837093353271 255 125 0
-6.70281982421875 -7.082002639770508 1.8179080486297607 255 125 0
-6.6185784339904785 -7.075921535491943 1.8195006847381592 255 125 0
-6.546236991882324 -7.066498756408691 1.8318431377410889 255 125 0
-6.463681697845459 -7.06220006942749 1.8279744386672974 255 125 0
-6.351890563964844 -7.053334712982178 1.8306477069854736 255 125 0
-6.246457576751709 -7.043777942657471 1.8358752727508545 255 125 0
-6.144322395324707 -7.035111427307129 1.8386609554290771 255 125 0
-6.0471577644348145 -7.0256147384643555 1.8440433740615845 255 125 0
-5.951653957366943 -7.0175018310546875 1.8456406593322754 255 125 0
-5.860294342041016 -7.008313179016113 1.8506067991256714 255 125 0
-5.768533706665039 -7.001810073852539 1.8477747440338135 255 125 0
-5.65136194229126 -6.991847038269043 1.8479747772216797 255 125 0
-5.536147117614746 -6.9838714599609375 1.8429378271102905 255 125 0
-5.454258918762207 -6.9739789962768555 1.8503899574279785 255 125 0
-5.396116733551025 -6.974848747253418 1.8348388671875 255 125 0
-5.229494094848633 -7.216205596923828 1.1528149843215942 255 125 0
-5.160768032073975 -7.208841323852539 1.156211018562317 255 125 0
-5.074483394622803 -7.201568603515625 1.1542271375656128 255 125 0
-6.438685894012451 -7.06041955947876 -1.1097551584243774 255 125 0
-5.0489091873168945 -8.27002239227295 -1.0837455987930298 255 125 0
-5.12742280960083 -8.282431602478027 -1.0918030738830566 255 125 0
-5.2231035232543945 -8.291555404663086 -1.0920953750610352 255 125 0
-5.322484970092773 -8.300885200500488 -1.0925111770629883 255 125 0
-5.42897891998291 -8.314875602722168 -1.0997538566589355 255 125 0
-5.5247321128845215 -8.328279495239258 -1.1081480979919434 255 125 0
-5.623154163360596 -8.336318969726562 -1.1079223155975342 255 125 0
-5.734644412994385 -8.351056098937988 -1.1174637079238892 255 125 0
-5.823718070983887 -8.356230735778809 -1.1146670579910278 255 125 0
-5.924558162689209 -8.365557670593262 -1.1181349754333496 255 125 0
-6.028571605682373 -8.371122360229492 -1.1156013011932373 255 125 0
-6.123483180999756 -8.365082740783691 -1.0961008071899414 255 125 0
-6.233613967895508 -8.36381721496582 -1.083544373512268 255 125 0
-6.32737922668457 -8.365398406982422 -1.0774776935577393 255 125 0
-6.396289348602295 -8.367319107055664 -1.0747014284133911 255 125 0
-6.970373153686523 -8.363752365112305 -1.0262178182601929 255 125 0
-7.702973365783691 -8.478096008300781 -1.1548173427581787 255 125 0
-7.882030010223389 -8.481534004211426 -1.149990200996399 255 125 0
-8.123979568481445 -8.496642112731934 -1.1596691608428955 255 125 0
-8.385427474975586 -8.509035110473633 -1.1646753549575806 255 125 0
-8.593250274658203 -8.501012802124023 -1.1425975561141968 255 125 0
-8.69920825958252 -8.464582443237305 -1.08424973487854 255 125 0
-8.706911087036133 -8.40554428100586 -0.9979801177978516 255 125 0
-8.712567329406738 -8.346643447875977 -0.9126173853874207 255 125 0
-7.7353434562683105 -6.655240058898926 -0.8723506927490234 255 125 0
-8.287840843200684 -6.692193984985352 -0.8546299338340759 255 125 0
-8.740362167358398 -8.45378303527832 0.4529094696044922 255 125 0
-8.75349235534668 -8.211713790893555 0.2715751528739929 255 125 0
-8.860466957092285 -7.0058794021606445 -0.631822943687439 255 125 0
-8.858949661254883 -7.173131465911865 -0.506769597530365 255 125 0
-8.722856521606445 -8.230635643005371 -0.7455494999885559 255 125 0
-8.727974891662598 -8.172879219055176 -0.6634578704833984 255 125 0
-8.855484962463379 -7.951208114624023 -0.349642276763916 255 125 0
-8.881723403930664 -7.181851387023926 0.6670310497283936 255 125 0
-8.897186279296875 -7.079804420471191 0.796453058719635 255 125 0
-8.893505096435547 -7.012135982513428 0.881047248840332 255 125 0
-8.898629188537598 -6.870503902435303 1.0570473670959473 255 125 0
-8.908628463745117 -6.795149326324463 1.149796485900879 255 125 0
-8.79074478149414 -6.749137878417969 1.2009116411209106 255 125 0
-8.817941665649414 -6.667850971221924 1.3010444641113281 255 125 0
-8.817317962646484 -6.5911736488342285 1.3938027620315552 255 125 0
-8.813935279846191 -6.5132317543029785 1.487470030784607 255 125 0
-8.813759803771973 -6.432002067565918 1.5847581624984741 255 125 0
-8.830992698669434 -6.341752052307129 1.6925708055496216 255 125 0
-8.643498420715332 -6.325956344604492 1.702641487121582 255 125 0
-8.435887336730957 -6.322111129760742 1.696122407913208 255 125 0
-8.24495792388916 -6.317913055419922 1.689762830734253 255 125 0
-8.07765007019043 -6.309854984283447 1.6890162229537964 255 125 0
-7.911787509918213 -6.306934833526611 1.6822404861450195 255 125 0
-7.761136531829834 -6.301629066467285 1.678424596786499 255 125 0
-7.619427680969238 -6.29684591293335 1.6743638515472412 255 125 0
-7.491528511047363 -6.289209842681885 1.6742379665374756 255 125 0
-7.371737480163574 -6.281062602996826 1.6750341653823853 255 125 0
-7.253419876098633 -6.2759881019592285 1.6721665859222412 255 125 0
-7.142117500305176 -6.2702178955078125 1.670331358909607 255 125 0
-7.037609577178955 -6.263392448425293 1.6698322296142578 255 125 0
-6.940866470336914 -6.254394054412842 1.6722841262817383 255 125 0
-6.833806991577148 -6.2563300132751465 1.661105990409851 255 125 0
-6.738936901092529 -6.252429008483887 1.6573656797409058 255 125 0
-6.373863697052002 -6.48783016204834 1.360499620437622 255 125 0
-6.148501396179199 -6.625669956207275 1.1853700876235962 255 125 0
-6.057131290435791 -6.621325492858887 1.1818116903305054 255 125 0
-5.939416885375977 -6.618188381195068 1.1740566492080688 255 125 0
-5.857831954956055 -6.613244533538818 1.1714680194854736 255 125 0
-5.779159069061279 -6.609015464782715 1.1680850982666016 255 125 0
-5.677562713623047 -6.605037689208984 1.1618725061416626 255 125 0
-5.577890396118164 -6.605403423309326 1.1508052349090576 255 125 0
-5.45808219909668 -6.609924793243408 1.1325422525405884 255 125 0
-5.366753101348877 -6.6124725341796875 1.1192880868911743 255 125 0
-5.218081951141357 -6.9332661628723145 0.7477506995201111 255 125 0
-5.145015716552734 -6.92872953414917 0.7442953586578369 255 125 0
-5.072341442108154 -6.931406497955322 0.732781708240509 255 125 0
-8.857248306274414 -7.699933052062988 -0.23576025664806366 255 125 0
-6.634810924530029 -7.5273118019104 -1.117035150527954 255 125 0
-8.858417510986328 -7.788261413574219 -0.04267967492341995 255 125 0
-5.035299777984619 -9.00607681274414 -1.075552225112915 255 125 0
-5.101626396179199 -9.021462440490723 -1.080718755722046 255 125 0
-5.19133186340332 -9.030668258666992 -1.0791780948638916 255 125 0
-5.307634353637695 -9.052119255065918 -1.0843756198883057 255 125 0
-5.428422451019287 -9.07201862335205 -1.0881723165512085 255 125 0
-5.529109001159668 -9.087004661560059 -1.0904780626296997 255 125 0
-5.60495662689209 -9.092168807983398 -1.0877461433410645 255 125 0
-5.68955135345459 -9.111185073852539 -1.0946969985961914 255 125 0
-5.804696083068848 -9.129499435424805 -1.0986980199813843 255 125 0
-5.894327640533447 -9.141290664672852 -1.1000860929489136 255 125 0
-5.990153789520264 -9.15528392791748 -1.1029536724090576 255 125 0
-6.092100143432617 -9.171481132507324 -1.1072375774383545 255 125 0
-6.1991496086120605 -9.185949325561523 -1.1101243495941162 255 125 0
-6.313243865966797 -9.201862335205078 -1.1138602495193481 255 125 0
-6.391474723815918 -9.209931373596191 -1.1145163774490356 255 125 0
-6.470065116882324 -9.215231895446777 -1.1130588054656982 255 125 0
-5.910321235656738 -8.453245162963867 -0.5971117615699768 255 125 0
-5.942989349365234 -8.384336471557617 -0.5460960268974304 255 125 0
-6.014199733734131 -8.383106231689453 -0.5417012572288513 255 125 0
-6.121102809906006 -8.382798194885254 -0.5367726683616638 255 125 0
-6.33911657333374 -8.378662109375 -0.5254186391830444 255 125 0
-7.249934673309326 -8.447160720825195 -0.5447282791137695 255 125 0
-8.610763549804688 -8.83922004699707 -0.7711897492408752 255 125 0
-8.724356651306152 -8.784979820251465 -0.733154296875 255 125 0
-7.042531490325928 -8.223575592041016 -0.40257295966148376 255 125 0
-8.6744384765625 -8.592803955078125 -0.6088162660598755 255 125 0
-8.725431442260742 -8.431705474853516 -0.5041168928146362 255 125 0
-8.730403900146484 -8.347100257873535 -0.45009350776672363 255 125 0
-8.707897186279297 -8.174635887145996 -0.341563880443573 255 125 0
-8.855735778808594 -8.186018943786621 0.6563103795051575 255 125 0
-8.864276885986328 -8.078985214233398 0.47911888360977173 255 125 0
-8.851693153381348 -7.290267467498779 -0.8235667943954468 255 125 0
-8.851155281066895 -7.3443193435668945 -0.734320342540741 255 125 0
-8.852738380432129 -7.397634983062744 -0.6461873054504395 255 125 0
-6.96267032623291 -7.0726189613342285 -1.1154533624649048 255 125 0
-6.8495941162109375 -7.07254695892334 -1.1116949319839478 255 125 0
-6.659248352050781 -7.068909645080566 -1.1110831499099731 255 125 0
-6.752011299133301 -7.070300102233887 -1.1120489835739136 255 125 0
-8.764304161071777 -8.306586265563965 0.8657352924346924 255 125 0
-8.756117820739746 -8.250654220581055 0.7732217311859131 255 125 0
-8.862696647644043 -7.997129440307617 0.3492223918437958 255 125 0
-8.8604097366333 -7.892111301422119 0.1751849353313446 255 125 0
-8.857511520385742 -7.476327896118164 -0.5140015482902527 255 125 0
-8.86020278930664 -7.580799102783203 -0.34092727303504944 255 125 0
-8.317493438720703 -7.075724124908447 -1.1591392755508423 255 125 0
-7.820019245147705 -7.076841831207275 -1.1402549743652344 255 125 0
-8.057522773742676 -7.075011253356934 -1.1513710021972656 255 125 0
-8.734546661376953 -7.113414287567139 -1.1110674142837524 255 125 0
-8.739516258239746 -7.167459487915039 -1.0216853618621826 255 125 0
-8.563142776489258 -7.085692882537842 -1.1509335041046143 255 125 0
-7.435583114624023 -7.077430725097656 -1.1244807243347168 255 125 0
-7.645508289337158 -7.069835662841797 -1.1441086530685425 255 125 0
-7.135044574737549 -7.077596664428711 -1.1140037775039673 255 125 0
-8.870065689086914 -7.242050647735596 0.2230248749256134 255 125 0
-8.883667945861816 -6.969963073730469 0.3791586458683014 255 125 0
-8.885123252868652 -6.87740421295166 0.4315420091152191 255 125 0
-8.899958610534668 -6.780246734619141 0.4863477349281311 255 125 0
-8.77471923828125 -6.716231346130371 0.5195457935333252 255 125 0
-8.800251960754395 -6.614923000335693 0.5761687159538269 255 125 0
-8.798709869384766 -6.518774032592773 0.6290162801742554 255 125 0
-8.660906791687012 -6.4659905433654785 0.6548541188240051 255 125 0
-8.6766357421875 -6.36341667175293 0.7110127210617065 255 125 0
-8.513437271118164 -6.3264851570129395 0.7270917892456055 255 125 0
-8.136879920959473 -6.383601188659668 0.6867700815200806 255 125 0
-7.954535007476807 -6.374692440032959 0.6866888999938965 255 125 0
-7.8339056968688965 -6.345630168914795 0.6991308927536011 255 125 0
-7.618223190307617 -6.3679518699646 0.6808642148971558 255 125 0
-7.599541187286377 -6.296635150909424 0.7176428437232971 255 125 0
-7.472756862640381 -6.284613132476807 0.7197120189666748 255 125 0
-7.132288932800293 -6.405714511871338 0.6451359987258911 255 125 0
-7.13421106338501 -6.331038951873779 0.6835259795188904 255 125 0
-7.11403751373291 -6.268157482147217 0.7149640917778015 255 125 0
-7.018643856048584 -6.2566986083984375 0.7170252203941345 255 125 0
-6.918066024780273 -6.253211975097656 0.7146928906440735 255 125 0
-6.670961380004883 -6.334102153778076 0.6631278395652771 255 125 0
-6.649168968200684 -6.2423906326293945 0.7081279754638672 255 125 0
-6.141800880432129 -6.60636568069458 0.502042829990387 255 125 0
-6.052762508392334 -6.608985424041748 0.4962075650691986 255 125 0
-5.9582366943359375 -6.596771240234375 0.4971010982990265 255 125 0
-5.839608192443848 -6.592166423797607 0.4925130307674408 255 125 0
-5.753602027893066 -6.585930347442627 0.4902786910533905 255 125 0
-5.652425765991211 -6.5792131423950195 0.48697996139526367 255 125 0
-5.553927421569824 -6.578370094299316 0.4806928038597107 255 125 0
-5.461666107177734 -6.577215671539307 0.4747152328491211 255 125 0
-5.372378826141357 -6.579446792602539 0.46712324023246765 255 125 0
-5.2237772941589355 -6.901640892028809 0.3014179766178131 255 125 0
-5.149948596954346 -6.927895545959473 0.28310325741767883 255 125 0
-5.073324203491211 -6.938265800476074 0.2720632553100586 255 125 0
-8.861255645751953 -7.787474155426025 0.05469126254320145 255 125 0
-6.144108772277832 -7.925912380218506 -1.1186281442642212 255 125 0
-6.335509777069092 -7.931272983551025 -1.1181485652923584 255 125 0
-5.052278995513916 -11.576069831848145 -1.0874730348587036 255 125 0
-5.159887313842773 -11.6331787109375 -1.094700813293457 255 125 0
-5.269756317138672 -11.679742813110352 -1.0989700555801392 255 125 0
-5.38225793838501 -11.72238826751709 -1.1025937795639038 255 125 0
-5.497291564941406 -11.763092041015625 -1.1054291725158691 255 125 0
-5.6153950691223145 -11.808548927307129 -1.1085195541381836 255 125 0
-5.737838268280029 -11.858531951904297 -1.1125171184539795 255 125 0
-5.8651123046875 -11.913463592529297 -1.1186028718948364 255 125 0
-5.9991326332092285 -11.980359077453613 -1.126246452331543 255 125 0
-6.135429382324219 -12.036736488342285 -1.1313648223876953 255 125 0
-6.2758097648620605 -12.087806701660156 -1.1357207298278809 255 125 0
-5.887518405914307 -10.416425704956055 -0.7311655879020691 255 125 0
-5.903177261352539 -10.223809242248535 -0.6808328628540039 255 125 0
-5.980080604553223 -10.22457504272461 -0.6764394640922546 255 125 0
-6.096523284912109 -10.221511840820312 -0.668738603591919 255 125 0
-6.218163013458252 -10.221723556518555 -0.6620514392852783 255 125 0
-6.3013176918029785 -10.221423149108887 -0.6572616100311279 255 125 0
-6.384969711303711 -10.218717575073242 -0.6515313386917114 255 125 0
-6.469088554382324 -10.212559700012207 -0.6453163623809814 255 125 0
-6.562785625457764 -10.218791961669922 -0.6425593495368958 255 125 0
-6.653285026550293 -10.21447467803955 -0.6370404362678528 255 125 0
-5.84747838973999 -8.872552871704102 -0.34096869826316833 255 125 0
-5.818873405456543 -8.70737075805664 -0.30118751525878906 255 125 0
-5.791996955871582 -8.671065330505371 -0.2933748662471771 255 125 0
-5.936882495880127 -8.712934494018555 -0.2972847819328308 255 125 0
-6.0430521965026855 -8.748360633850098 -0.30157142877578735 255 125 0
-6.11880350112915 -8.770661354064941 -0.30397698283195496 255 125 0
-6.2076640129089355 -8.800739288330078 -0.3078521490097046 255 125 0
-6.292933464050293 -8.821699142456055 -0.30966171622276306 255 125 0
-6.398904800415039 -8.855375289916992 -0.313847154378891 255 125 0
-6.513495922088623 -8.889449119567871 -0.31819483637809753 255 125 0
-6.637843132019043 -8.923981666564941 -0.32225143909454346 255 125 0
-6.7712931632995605 -8.957673072814941 -0.32612594962120056 255 125 0
-6.908331871032715 -8.985891342163086 -0.3286541700363159 255 125 0
-8.853194236755371 -7.676565170288086 -0.4287264943122864 255 125 0
-8.855110168457031 -7.660541534423828 -0.5287695527076721 255 125 0
-8.86755657196045 -7.804011821746826 0.365680456161499 255 125 0
-6.339848041534424 -7.520249366760254 -1.118116855621338 255 125 0
-6.147559642791748 -7.516977787017822 -1.1166744232177734 255 125 0
-8.72704792022705 -7.5814313888549805 -1.008048176765442 255 125 0
-6.526299476623535 -7.5239057540893555 -1.1164730787277222 255 125 0
-8.861347198486328 -7.852526664733887 0.6691794395446777 255 125 0
-8.869571685791016 -7.886322975158691 0.879075288772583 255 125 0
-7.042340278625488 -7.532291889190674 -1.119511365890503 255 125 0
-8.860452651977539 -7.868745803833008 0.7731028199195862 255 125 0
-7.335943698883057 -7.536654949188232 -1.1248513460159302 255 125 0
-8.721060752868652 -7.564714431762695 -1.1079213619232178 255 125 0
-8.865596771240234 -7.787549018859863 0.26612305641174316 255 125 0
-6.444627285003662 -7.522398948669434 -1.1143701076507568 255 125 0
-6.240426063537598 -7.518100738525391 -1.1181594133377075 255 125 0
-8.848611831665039 -7.69195032119751 -0.3282323181629181 255 125 0
-8.86268424987793 -7.8196210861206055 0.4665398895740509 255 125 0
-8.840760231018066 -7.61160135269165 -0.82912278175354 255 125 0
-8.865026473999023 -7.771560192108154 0.16646042466163635 255 125 0
-7.639848232269287 -7.540508270263672 -1.1439604759216309 255 125 0
-6.857264518737793 -7.530893325805664 -1.1150319576263428 255 125 0
-6.7536420822143555 -7.5288872718811035 -1.1158617734909058 255 125 0
-8.698596954345703 -9.720113754272461 -0.4487512409687042 255 125 0
-8.699945449829102 -9.598512649536133 -0.422086626291275 255 125 0
-8.607365608215332 -9.433515548706055 -0.3878941833972931 255 125 0
-8.729107856750488 -9.376713752746582 -0.37388354539871216 255 125 0
-7.116167068481445 -8.563933372497559 -0.2311239242553711 255 125 0
-8.418103218078613 -9.024986267089844 -0.30573907494544983 255 125 0
-8.783149719238281 -9.060739517211914 -0.3085865080356598 255 125 0
-8.652173042297363 -8.803465843200684 -0.2592115104198456 255 125 0
-8.72140121459961 -8.721785545349121 -0.24263514578342438 255 125 0
-8.7362060546875 -8.4224853515625 -0.18653050065040588 255 125 0
-8.738137245178223 -8.324005126953125 -0.16870684921741486 255 125 0
-8.737380981445312 -8.225886344909668 -0.15128104388713837 255 125 0
-8.860068321228027 -8.143928527832031 -0.1361931413412094 255 125 0
-5.7349653244018555 -7.916167736053467 -1.1148642301559448 255 125 0
-8.787096977233887 -6.649875640869141 0.084367536008358 255 125 0
-8.782991409301758 -6.54556131362915 0.0971335843205452 255 125 0
-8.672456741333008 -6.474599361419678 0.10424745082855225 255 125 0
-8.655120849609375 -6.375431537628174 0.11571565270423889 255 125 0
-8.142008781433105 -6.4659037590026855 0.09853847324848175 255 125 0
-8.132425308227539 -6.3758225440979 0.10853955894708633 255 125 0
-8.097529411315918 -6.296042442321777 0.11687817424535751 255 125 0
-7.636397838592529 -6.419567584991455 0.0961456447839737 255 125 0
-7.640189170837402 -6.333169937133789 0.10485000908374786 255 125 0
-7.596554279327393 -6.270155906677246 0.11049302667379379 255 125 0
-7.428434371948242 -6.27905797958374 0.10619603097438812 255 125 0
-7.3051934242248535 -6.269711494445801 0.10442078113555908 255 125 0
-7.2107930183410645 -6.247934818267822 0.10428731888532639 255 125 0
-7.0897393226623535 -6.248701572418213 0.10125593841075897 255 125 0
-6.9904961585998535 -6.240178108215332 0.09943024814128876 255 125 0
-6.91286563873291 -6.220172882080078 0.09899812936782837 255 125 0
-6.639532089233398 -6.361856937408447 0.07906991988420486 255 125 0
-6.580476760864258 -6.305940628051758 0.08192091435194016 255 125 0
-6.14826774597168 -6.605104923248291 0.043707430362701416 255 125 0
-6.068207740783691 -6.601097583770752 0.04116305336356163 255 125 0
-5.971750259399414 -6.593027591705322 0.03806816041469574 255 125 0
-5.861427307128906 -6.5840582847595215 0.03407762944698334 255 125 0
-5.755882740020752 -6.580960273742676 0.029484037309885025 255 125 0
-8.861875534057617 -7.892051696777344 0.05249977111816406 255 125 0
-5.658057689666748 -6.5795159339904785 0.024775458499789238 255 125 0
-5.662435054779053 -6.572757720947266 0.02541394717991352 255 125 0
-5.57089376449585 -6.571053504943848 0.020730888471007347 255 125 0
-5.517096519470215 -6.573883056640625 0.017593715339899063 255 125 0
-5.453390598297119 -6.56590461730957 0.014453682117164135 255 125 0
-5.450315475463867 -6.57336950302124 0.013830249197781086 255 125 0
-5.372965335845947 -6.564716339111328 0.009773069061338902 255 125 0
-5.320996284484863 -6.584902286529541 0.005328914150595665 255 125 0
-5.209650039672852 -6.929076194763184 -0.022426653653383255 255 125 0
-5.149167537689209 -6.9329304695129395 -0.026469292119145393 255 125 0
-5.071234703063965 -6.9344658851623535 -0.031793370842933655 255 125 0
-6.5510969161987305 -7.075408458709717 -1.1079893112182617 255 125 0
-6.843749523162842 -8.365479469299316 -1.033370852470398 255 125 0
-8.874013900756836 -7.489078044891357 0.2664622366428375 255 125 0
-5.080630302429199 -12.434908866882324 0.6423168778419495 255 125 0
-5.2078657150268555 -12.464336395263672 0.6551166772842407 255 125 0
